# .PCD v0.7 - Point Cloud Data file format
VERSION 0.7
FIELDS x y z
SIZE 4 4 4
TYPE F F F
COUNT 1 1 1
WIDTH 1526
HEIGHT 1
VIEWPOINT 0 0 0 1 0 0 0
POINTS 1526
DATA ascii
7.2045779 -6.671628 1.2342131
-5.5828953 10.233292 1.1187757
6.921104 -6.7432127 1.2256052
6.7229714 -6.7944851 1.2200024
2.0217552 -0.74655867 1.2746195
-5.8568192 10.15633 1.0419296
-6.1318855 10.097074 0.96450531
6.3374438 -6.8877077 1.2091256
1.7570394 -0.81254148 1.2627865
-6.4335685 10.029379 1.0036368
6.0023828 -6.9678926 1.2002231
5.8153038 -7.0173006 1.195949
1.5295519 -1.0108905 1.2806568
-6.7548532 9.9574261 1.0467726
-6.9642572 9.9095068 1.0760117
5.6646018 -7.0524216 1.1922331
-6.6324544 8.7997541 1.2227225
-7.242588 9.8420172 1.1153424
-7.6424079 9.7517757 1.0444131
-7.8654742 9.7028141 1.0761235
-7.5213137 8.5750341 1.1691289
-8.2071972 9.6081114 0.98915398
4.1415219 -7.4222574 1.1635716
-7.6392975 8.5370369 1.1906335
-8.5483484 9.5299616 1.0365932
3.9857121 -7.4626904 1.1616578
3.7483149 -7.5243969 1.1590899
-7.4258685 7.1287003 1.2822866
-8.7752056 9.4690809 1.0671347
-8.9847727 9.432725 1.0974925
3.376524 -7.6004171 1.1538107
-7.0746212 6.3284736 1.1701095
-7.4901347 6.8235908 1.288482
-7.4475894 7.019424 1.283584
-8.708703 8.2774057 1.1246746
-9.4083776 9.3341122 1.0065235
3.0929346 -7.653224 1.1498153
2.8564262 -7.7250385 1.1495417
-8.3375397 6.9463272 1.2623725
-9.687705 9.2716579 1.0432622
-9.8782835 9.2279873 1.0686023
2.521914 -7.8045025 1.1476984
-7.8865814 6.0956955 1.1527619
-8.396718 6.6377115 1.2706244
-8.3540163 6.8596401 1.2643048
-9.9632587 8.45994 1.0503432
-10.025302 8.7003479 1.0680504
-10.183586 9.0735359 1.1060954
2.1787577 -7.8830481 1.1461896
1.9647492 -7.9292479 1.1453612
-8.5038633 6.4301343 1.2930709
-9.8981991 8.007617 1.027131
-9.924159 8.2650166 1.0383019
1.6502165 -8.0006371 1.1450737
-8.8442678 5.8707933 1.1066028
-9.5512619 6.6036501 1.2383167
-10.184542 7.9164457 1.0680381
-10.464608 7.8695488 1.1094395
1.2592014 -8.0856466 1.1451756
1.0763491 -8.1260166 1.145593
-9.2972212 5.5441017 1.1989249
-9.3226576 5.6878366 1.2009764
-9.6185579 6.1945004 1.1081923
-9.6477823 6.4598475 1.1115502
-10.044218 6.8036346 1.1780628
-10.331669 7.0721064 1.0772129
-10.429891 7.4923086 1.0972805
-10.481793 7.7368126 1.1093197
0.82136405 -8.1890173 1.1472725
-9.0928307 4.6632028 1.1892068
-9.1544065 4.934967 1.1899352
-9.2487192 5.339263 1.1948338
-9.8492775 5.9698486 1.1474991
-10.265589 6.7998939 1.0652602
0.38070357 -8.2905922 1.1503617
-8.8975706 3.7495174 1.204024
-8.9717598 4.085619 1.196606
-9.0527115 4.4475288 1.1918832
-9.8427572 5.017355 1.0223128
-9.9166784 5.3604198 1.0248234
-9.9872427 5.7005 1.0290196
0.15710151 -8.3433819 1.1524869
-0.063803673 -8.3987913 1.1552751
-7.925415 1.9291501 1.2026453
-8.6861115 2.8537161 1.2364637
-8.7605371 3.2305758 1.2177123
-8.8454628 3.5252645 1.2102755
-9.6277246 4.1844831 1.0206264
-9.6935482 4.5323777 1.0160462
-9.7935801 4.8093882 1.0212225
-0.45435381 -8.4921522 1.1604794
-7.8704391 1.4057908 1.1196625
-7.9764962 1.693604 1.2384887
-8.4652023 1.9825709 1.2851291
-8.5665693 2.386744 1.2600335
-8.626646 2.6366918 1.2458775
-0.75352269 -8.5552473 1.1642042
-0.98149401 -8.6109543 1.1682111
-8.1981964 0.88070345 1.3744373
-8.2399063 1.0573039 1.3581767
-9.3346338 2.8255599 1.0566484
-1.3396424 -8.6974201 1.1750445
-9.0319977 1.4872508 1.1249455
-1.6623154 -8.771944 1.1814857
-1.8763201 -8.8236017 1.1863253
-8.7654591 0.30194616 1.2117587
-8.83535 0.60410166 1.1877075
-2.1594596 -8.8893175 1.1929326
-8.5547247 -0.61109543 1.2925491
-8.6514339 -0.18950272 1.2537684
-8.7160473 0.082407951 1.2302134
-2.5498331 -8.9799995 1.2027258
-2.7685516 -9.030694 1.2085439
-8.3163366 -1.7143803 1.2251691
-8.3709965 -1.4731498 1.2018765
-8.4450598 -1.1431923 1.1700857
-3.0056019 -9.0810423 1.214794
-7.4946108 -3.3013458 1.1615975
-7.6680417 -3.0206118 1.1405675
-8.133091 -2.6126385 1.1271062
-8.1926346 -2.3360672 1.1013153
-8.2824526 -1.9360471 1.065233
-3.4444427 -9.1815825 1.2278029
-7.9478364 -3.0568905 1.1635747
-8.0809984 -2.8445978 1.1490635
-3.6978469 -9.2382555 1.2355894
-3.8818069 -9.28057 1.2416272
-7.7187634 -4.4085588 1.3050922
-7.7566795 -4.2219992 1.2853941
-4.2572222 -9.3688602 1.2546282
-7.5113711 -5.3349457 1.404168
-7.6065006 -4.9051065 1.3576452
-7.6679902 -4.6264353 1.3278985
-4.56742 -9.4452372 1.2662157
-4.7772994 -9.4910841 1.2737719
-7.4231439 -5.723032 1.4466865
-7.4611006 -5.5551567 1.4281995
-5.1432295 -9.5787249 1.2882087
-7.0308552 -7.3611689 1.1205738
-7.0942297 -7.0701551 1.0955112
-5.4682741 -9.6520576 1.3010751
-5.6979012 -9.7077761 1.3108364
-6.8134923 -8.2806025 1.2005262
-6.8933883 -7.9272995 1.1695062
-6.973237 -7.5940313 1.1405813
-5.9640079 -9.7699718 1.3222444
-6.6149035 -9.1655216 1.2792045
-6.6988187 -8.7804413 1.244763
-6.7644238 -8.4933128 1.2192804
-6.2982092 -9.8545446 1.3375775
-6.5127263 -9.5901127 1.3171836
8.8471441 14.744102 1.2986768
8.7941341 14.836687 1.2997617
7.9794927 16.35474 1.3358365
9.0614805 13.821821 1.2615741
8.988843 14.148381 1.2743393
8.9075994 14.515011 1.2895756
8.5662231 14.92079 1.2839172
9.1622505 13.39747 1.2470356
9.1160421 13.591999 1.2535136
8.4781981 10.716491 1.4370474
8.3768759 11.065898 1.4424255
8.7133799 9.6060705 1.4187788
8.642395 9.8834343 1.4199229
8.5076504 10.327005 1.4208077
8.4921608 10.519981 1.4283878
6.8413529 12.224342 1.314976
6.7938361 12.250435 1.3110037
4.9355168 14.787987 1.3538584
4.782238 14.781552 1.3385448
8.9395704 8.6955662 1.4226596
8.8662214 9.0358162 1.4215456
8.7641611 9.4020939 1.4186168
6.5716424 12.267478 1.4674412
8.9640064 8.5170498 1.4218041
7.8891091 9.8901844 1.3079332
9.3969831 7.2302523 1.4704977
5.8011017 11.699421 1.4705747
4.8562598 13.058565 1.4968085
4.5841131 13.200456 1.48026
7.1162105 9.0491724 1.4823411
6.6419873 10.006115 1.4570893
6.4844956 10.201397 1.4444115
7.4005504 8.0946884 1.4950516
7.3356662 8.3766575 1.4929005
7.1710525 8.7635889 1.4784536
7.1102548 8.9855289 1.4779315
4.7104678 11.710104 1.3083258
6.1881905 9.5648136 1.3454518
4.4921041 11.666061 1.2717315
5.3829684 9.6282444 1.4974735
5.1105461 9.7324076 1.4523131
4.9275193 9.954195 1.438732
4.0528402 11.239922 1.4412671
11.31316 1.2243857 1.4881574
4.9609261 9.2850895 1.378136
3.8674898 11.228659 1.4083866
3.3215656 11.401512 1.3467848
3.1321969 11.347586 1.3089993
0.41364086 14.915092 1.3862146
0.29049873 14.894466 1.3773705
4.056386 9.4775352 1.4585321
3.8720469 9.6882181 1.4453278
0.79248655 13.857611 1.2211727
-0.027805686 14.824739 1.3529459
3.7970357 9.0342722 1.3429085
2.513763 10.941338 1.3866154
0.30742741 13.628304 1.4461039
-0.39123011 14.741491 1.3266715
-0.61392874 14.687519 1.3112746
-2.5993481 17.372183 1.3823123
-2.7371941 17.851225 1.4530586
-2.9768643 17.953211 1.471287
2.0056477 10.925014 1.3000847
-0.90128803 14.618058 1.4523082
-2.4583669 16.763498 1.2929648
-2.5122602 16.992374 1.3265575
-3.3341813 17.871529 1.466273
-1.2344179 14.545298 1.2756017
-3.683773 17.793125 1.4631788
-3.8926187 17.742836 1.461646
-1.5344626 14.225737 1.2161098
-2.0666645 14.944139 1.3470247
-2.2831182 15.05599 1.369566
-4.1298718 17.688877 1.4612033
-0.41805971 11.8528 1.2541273
-1.2787533 13.077314 1.2728528
-1.4341712 13.064722 1.2686754
-1.7772665 13.67305 1.4002292
-1.8497039 13.968977 1.4647361
-1.9108487 14.252493 1.3737299
-2.6501646 14.980084 1.3621783
-4.5842237 17.585804 1.4623905
-4.7926898 17.538206 1.4637516
-1.0828362 12.202993 1.3171892
-1.2632793 12.200119 1.3129463
-1.5475491 12.697706 1.4365268
-1.5923666 13.098988 1.4075432
-2.9057808 14.899884 1.3537911
-3.1234725 14.831923 1.3480271
-4.0689735 16.224586 1.2531277
-5.0344214 17.484936 1.4665811
-1.3530042 12.18292 1.3074145
-3.4567814 14.716211 1.3392866
-5.4302435 17.400299 1.4730433
-3.8365445 14.572746 1.3304251
-5.3661137 16.394482 1.333099
-5.4650102 16.826973 1.3967313
-5.5277319 17.119785 1.4396212
-3.267755 13.083235 1.3143159
-4.127996 14.459475 1.3253704
-4.3402853 14.410658 1.328841
-5.3301592 15.717614 1.2400055
-6.0192719 16.457069 1.3778206
-6.0930839 16.774895 1.4242635
-6.1728911 17.164898 1.4806809
-4.6634007 14.333883 1.3357782
-5.6261029 15.654387 1.2485732
-5.8969483 15.947015 1.3031503
-5.9670653 16.242704 1.3463767
-4.951714 14.089941 1.3146734
-5.7831812 15.475677 1.2342026
-4.6066413 12.807629 1.4900038
-4.659842 13.236973 1.4431641
-4.4492469 11.948661 1.4149884
-4.4472504 12.280914 1.4906118
-4.7739854 12.770794 1.3617907
-5.2012734 12.924982 1.4341967
-4.7227035 11.814615 1.417696
-5.0210547 12.137669 1.3958573
-5.093257 12.437309 1.4655459
-4.8188968 11.209961 1.2978694
-4.8946495 11.549143 1.3811224
-5.7952366 10.195995 1.2581073
-5.8493776 10.180758 1.265469
-6.0609903 10.132618 1.2972891
-6.4405842 10.04666 1.357668
-6.7288184 9.9819126 1.4061342
-6.9539313 9.9316254 1.4456942
-7.2694769 9.5520267 1.4612203
-7.3426046 9.8062563 1.3828154
-7.3885088 9.0170355 1.4228215
-7.2546873 9.2566757 1.4206773
-7.6595616 9.7516403 1.3106596
-7.8817692 9.7005739 1.3480339
-7.4210391 8.9656687 1.4246566
-8.1484957 9.6406937 1.3942618
-8.5423746 9.5497246 1.4639844
-9.0774632 9.4220896 1.4085394
-7.5773787 6.6568313 1.3071234
-8.6517029 8.459693 1.3993254
-9.4093342 9.3430882 1.4673827
-7.8030491 6.6080761 1.3655487
-8.0211391 6.5602808 1.42217
-9.6795902 9.2867565 1.3541691
-9.8661289 9.241291 1.3843586
-8.140686 6.5292797 1.4532573
-10.291601 9.1196117 1.4532548
-8.7311783 6.3793721 1.3445761
-10.250077 8.1980209 1.4034548
-10.335732 8.5553064 1.433664
-10.449177 9.0132828 1.4758377
-7.8273015 4.8335395 1.4087379
-10.039225 7.3412313 1.4975592
-10.207122 8.0115442 1.3889532
-6.3771081 2.0024819 1.4077132
-9.9447145 6.9332275 1.315642
-9.9854393 7.0918159 1.3252981
-9.8867512 5.9293766 1.454109
-7.255022 1.9308548 1.476269
-8.1741924 0.78117132 1.3838545
-8.1681557 -2.3322296 1.4742694
-8.2610254 -1.929812 1.4291015
-7.3137112 -6.1891403 1.4984277
-7.3729043 -5.9266167 1.469025
15.030034 -3.0918589 0.16682342
15.011582 -3.5932417 0.18002227
15.019774 -3.286212 0.17188159
14.975091 -3.7144518 0.18276969
9.29251 -6.2204018 0.18113843
9.1139956 -6.2586088 0.18031678
8.908164 -6.3083754 0.17957619
5.8971682 -7.0404835 0.17317924
4.3608427 -7.4167356 0.17345443
4.0861425 -7.4810343 0.17367855
3.7191041 -7.5591307 0.17382815
3.4681056 -7.6061649 0.17380306
3.1083152 -7.65415 0.17322412
2.6758912 -7.8068161 0.17596605
2.3237298 -7.8817644 0.17665783
2.1102917 -7.9339027 0.17738304
1.7395191 -8.0223389 0.17869875
1.2467852 -8.138834 0.18064979
0.89149427 -8.2232733 0.18223539
0.6859479 -8.2696943 0.18314269
0.31102467 -8.3517685 0.1848335
-0.13599539 -8.4601374 0.18742976
-0.46407807 -8.5345716 0.18929335
-0.67759728 -8.5836163 0.19060001
-2.238332 -7.2379713 0.14176086
-2.5218828 -6.9657278 0.13221174
-1.0589312 -8.6742344 0.19316503
-1.2800086 -8.7260151 0.19469151
-2.0568135 -7.9371395 0.16637966
-2.1494172 -7.5744686 0.15360591
-2.8253555 -7.0981674 0.13698348
-2.8828897 -6.9452877 0.13164809
-1.5594583 -8.7947311 0.19683096
-2.008116 -8.1615248 0.17428449
-1.8529456 -8.8636532 0.19903627
-3.8465908 -7.2165813 0.14235297
-4.1937575 -7.3047104 0.14611754
-3.0932231 -9.1039915 0.20762601
-4.9238634 -7.562562 0.15698299
-4.940115 -7.4067488 0.15160033
-4.810626 -8.1041746 0.17555729
-5.3085909 -7.6181889 0.16012207
-7.4176865 -5.6083803 0.1011802
-5.2723894 -7.8849106 0.16928056
-5.4358549 -7.7675514 0.16574344
-6.4368191 -7.8660574 0.17311367
-6.9054937 -7.831872 0.17413679
-7.0021782 -7.6737633 0.1691995
-7.3974819 -7.7775297 0.17483452
-7.7086468 -7.9159803 0.18128935
9.4079447 13.085196 0.21981761
9.5960703 12.295664 0.2244924
9.5083761 12.642197 0.22189721
9.4587479 12.89386 0.22093293
9.7203779 11.740164 0.22893891
9.6588573 12.063301 0.22670695
9.7407055 11.325903 0.22950956
9.5416412 11.202941 0.21979967
9.5662422 11.1373 0.22099569
7.9175711 12.283379 0.14636251
9.3798275 10.360817 0.21303287
9.2123451 10.578372 0.20423821
9.0943556 10.95451 0.19803318
8.9103851 11.132441 0.18908301
6.9528217 12.076702 0.10108739
2.9227369 14.303916 0.29966131
2.9545753 13.891834 0.27951041
2.8672779 14.055817 0.28371546
1.4670062 15.097185 0.12664771
1.1629851 15.025438 0.11516616
0.9126718 14.965448 0.10599753
0.34453154 14.844312 0.2339367
0.078891754 14.789029 0.22382125
-0.21689177 14.683979 0.21026602
-0.49465287 14.658142 0.20314851
-2.2100036 15.777489 0.10751677
-1.6427706 14.391327 0.17093852
-1.9822128 14.706282 0.19104382
-0.11027169 8.2741146 0.15765229
-0.70614791 8.7143536 0.16855094
-5.1640911 12.854263 0.12412277
-5.2321911 13.149604 0.14435303
-5.2988977 13.417458 0.16292331
-0.27149379 8.2329636 0.16925755
-0.54362559 8.2667875 0.12672797
-0.67122257 8.5549889 0.14816335
-5.0374608 12.306383 0.19670764
-5.1091604 12.623875 0.22386596
-4.8496971 11.477339 0.12618637
-4.9142551 11.762097 0.15067485
-4.9815211 12.063699 0.17620948
-4.7188225 10.895961 0.16302457
-4.7806206 11.177395 0.19007167
-4.6931729 10.434146 0.2010158
-4.7474079 10.550643 0.13504678
-5.1692095 10.314292 0.14773658
-5.4373436 10.256838 0.1660631
-5.6606555 10.205564 0.18167767
-6.0109439 10.093512 0.20488104
-6.2631578 10.042093 0.13375363
-6.5265656 9.9834442 0.15289769
-6.8323021 9.9147596 0.17607823
-7.0796709 9.85853 0.19549945
-7.4325676 9.7790127 0.22414175
-7.6629725 9.7285366 0.2433885
-7.9298849 9.6692171 0.26605442
-8.2467957 9.5919323 0.17554244
-8.4812851 9.5390997 0.19313237
2.014107 -0.81749535 0.38913086
-8.8296118 9.4584618 0.21966484
-9.0583286 9.4086962 0.2373949
1.7559288 -0.88250685 0.38594159
1.5563095 -0.93288326 0.38386247
-9.4530897 9.3193254 0.13344848
1.6122866 -1.2364798 0.41047391
-9.6593418 9.2712297 0.14810002
-9.8678923 9.2232714 0.16154101
-10.249201 9.1408691 0.18644652
-10.469772 9.0934105 0.20103136
-10.723259 8.6984549 0.218694
-10.745975 8.9158554 0.21981183
-8.3081007 6.2336464 0.29998955
-8.8529282 6.8803897 0.223223
-10.585104 8.1082563 0.212405
-10.668249 8.4647999 0.21593007
-8.6378965 6.1542034 0.33522704
-10.436497 7.5718117 0.20743909
-10.53079 7.887188 0.21044901
-9.1603003 6.0039692 0.26941344
-9.6728697 6.2005792 0.3085123
-9.7444572 6.4917593 0.3080112
-10.263744 6.7755957 0.20696959
-10.333827 7.077076 0.2067816
-7.8358002 3.9686866 0.46911857
-8.0498066 4.3358021 0.35305145
-8.4896164 4.5602827 0.26666448
-8.5364237 4.780014 0.26053014
-9.8824825 5.9709201 0.19495896
-10.071833 5.9466662 0.21174154
-7.8549738 3.5441778 0.38510624
-7.9019766 3.7123299 0.3781881
-8.168416 3.8949895 0.27519765
-8.6407871 4.2131557 0.29583183
-9.9388666 5.3220763 0.2202647
-10.002282 5.6629062 0.21468553
-8.0290718 3.1097856 0.31198081
-8.4501572 3.3504007 0.32849607
-8.5491505 3.7859082 0.31107751
-8.944787 3.8687012 0.33791688
-9.1031036 4.1677895 0.33547202
-9.7898941 4.7658372 0.22925296
-9.8852091 5.0803137 0.22437444
3.1314819 -7.631547 0.71097195
-7.9873981 2.5697432 0.3451499
-8.2909489 2.9616621 0.34084693
-8.5117617 3.0121224 0.35389486
-8.8743019 3.3199787 0.36279294
-8.9635458 3.7355154 0.34648666
-9.4964275 4.0234532 0.23653612
-9.6252289 4.1583228 0.24205008
2.922466 -7.7487268 0.71511853
2.6798365 -7.8006945 0.71452606
-7.6043711 1.4794178 0.40092459
-7.662322 1.7136765 0.38645074
-7.9117155 2.0134101 0.3798863
-8.2500486 2.5179224 0.3672373
-8.5454197 2.509624 0.38895199
-8.7399321 2.9458528 0.37506661
-9.4881439 3.3452191 0.12856418
-9.5595398 3.6665413 0.11927131
2.3295748 -7.8821507 0.71440244
2.1383569 -7.9278946 0.71462011
-7.4265146 1.0285192 0.42668274
-7.601613 0.95985699 0.44261119
-7.9370279 1.4273086 0.42593923
-8.224659 1.9887438 0.40268794
-8.4318991 1.9669724 0.41842785
-9.2857428 2.5244598 0.15432009
-9.3739605 2.8628204 0.14342079
-9.4340887 3.1001904 0.13606635
1.7666903 -8.0113029 0.71506572
-7.6352863 0.56993055 0.47686353
-7.9830132 0.88008165 0.47196481
-8.1355619 1.3686819 0.44305989
-9.167737 1.9531989 0.17574099
-9.2449121 2.3033981 0.16261068
1.2739449 -8.1285667 0.71683156
-7.3120394 -0.29303646 0.38299021
-7.563323 0.06585598 0.5156846
-7.6379824 0.38133955 0.49286672
-8.9837465 1.1202121 0.2095823
-9.0405588 1.371592 0.19906917
-9.1198759 1.7089353 0.18552604
0.9196384 -8.2117653 0.71854484
0.71266007 -8.2580919 0.71961153
-7.1666546 -1.0074019 0.42958841
-7.2270222 -0.83943653 0.42060044
-7.5083847 -0.42793417 0.39894405
-7.8558683 -0.42396975 0.25479707
-8.0728407 -0.061655521 0.55475163
-8.8507462 0.53695965 0.23518345
-8.9286747 0.8721118 0.22035435
0.33825469 -8.3440628 0.72209382
-7.1494455 -1.2648697 0.28515378
-7.7781458 -0.65597916 0.26615831
-7.984684 -0.45436621 0.26072821
-8.6221437 -0.32603645 0.27469978
-8.7303991 -0.0053133965 0.26049587
-8.8049078 0.32673979 0.24485663
-0.1388464 -8.4498453 0.72570181
-6.6165218 -2.7319269 0.36619791
-7.6669636 -1.5819998 0.3192071
-8.5389175 -0.8574152 0.30246076
-8.5993719 -0.52891397 0.28551367
-0.46153677 -8.5241833 0.72876227
-0.67480516 -8.5756998 0.731179
-6.6462975 -2.7179785 0.36593494
-0.91237962 -8.636548 0.73428071
-7.4872789 -3.3378458 0.42546323
-7.7633438 -3.0809917 0.41585788
-7.9703054 -3.0207958 0.4173508
-7.7246113 -4.3664999 0.49749199
-7.5744772 -5.0714283 0.54019535
-7.6821079 -4.5919781 0.51118982
-7.4446106 -5.6486025 0.57558119
-7.5290165 -5.2705212 0.55233049
-7.2538748 -6.4552908 0.62560761
-7.3229294 -6.1619797 0.60732079
-7.382473 -5.8917961 0.5904721
-7.1008692 -7.0179558 0.66064727
-7.1944208 -6.6776495 0.63942647
-6.9341803 -7.8405972 0.71346176
-6.9996357 -7.5705738 0.69624293
-7.0663099 -7.267252 0.67685604
-6.9127951 -7.9313898 0.71928203
9.2456417 13.155767 0.66806364
9.2141113 13.232312 0.66752613
9.5114584 12.33637 0.67101741
9.4113779 12.572117 0.66788769
9.2934513 12.947866 0.66687226
9.6493053 11.742451 0.67183912
9.5683279 12.093616 0.67115211
9.683259 11.31444 0.66859186
9.6895304 11.557842 0.67234838
9.3389854 10.376665 0.6307795
9.2049284 10.56316 0.62127829
9.0794315 10.95993 0.61515594
8.9340849 11.191925 0.60624886
7.4416971 12.290106 0.51036906
6.8918514 12.145496 0.46538129
6.6593361 12.120722 0.44736609
6.4642868 12.076816 0.43169805
6.0364418 11.968239 0.39713117
5.9345684 12.215841 0.39690313
2.9157374 14.612247 0.48161861
2.7871559 14.816 0.48861429
2.5854828 15.195881 0.50511849
2.3182476 15.307814 0.49977025
2.9278076 14.458417 0.47065738
2.6812694 14.81259 0.64907432
1.9719341 15.225067 0.4773002
1.7477286 15.170367 0.46278295
2.9423764 13.908253 0.59094489
2.8616064 14.056122 0.59727883
1.5797145 15.13314 0.45152542
1.1557441 15.02237 0.58425987
0.91881752 14.971376 0.56881976
0.57053041 14.890136 0.54657423
0.33828998 14.834864 0.53225982
-2.7051544 17.861439 0.40783277
-2.8751879 17.941765 0.41414621
0.074571609 14.777287 0.51747322
-2.4854004 16.921497 0.34282574
-2.5613565 17.250015 0.36551455
-3.1952238 17.874506 0.41169104
-3.4519439 17.812468 0.40971515
-0.27429843 14.667393 0.49552944
-0.49990499 14.647619 0.48742566
-2.3565173 16.344921 0.47336206
-2.4314368 16.670975 0.32556012
-3.7439992 17.751354 0.40888581
-0.82365513 14.577504 0.47276947
-1.0612496 14.517183 0.46193632
-2.1675303 15.507825 0.55500329
-2.2416372 15.825855 0.58809614
-4.0168796 17.695568 0.40867236
-4.256052 17.643562 0.40888759
-1.3383234 14.451098 0.45096084
-2.0537751 15.002068 0.50254667
-2.114867 15.2705 0.53036487
-4.5923576 17.563602 0.40946725
-4.8490295 17.506001 0.4107646
-1.652171 14.370686 0.57336247
-1.8349115 14.375317 0.57204306
-1.9950674 14.749752 0.47645995
-5.1754103 17.43404 0.413371
-5.4385042 17.371803 0.41569921
-5.6677971 17.314783 0.41811934
-5.9900446 17.244354 0.42280814
15.127461 -3.1669836 0.87040687
-6.006206 16.482016 0.37540039
-6.111495 16.924667 0.40638146
15.055694 -3.5566378 0.88459003
15.098422 -3.3312607 0.87640083
-5.8167906 15.662508 0.48808214
-5.8751292 15.907661 0.50891316
15.092942 -4.1149769 0.91169667
14.999715 -3.7866564 0.89251304
-5.7251205 15.286258 0.61865091
-5.7616167 15.43066 0.4686363
14.915202 -4.2544651 0.91033781
-5.4921789 14.290625 0.51374376
-5.5814643 14.661227 0.55286837
-5.3496323 13.659851 0.58125114
-5.4322338 14.028868 0.48630819
-5.1567373 12.841892 0.48171452
-5.238308 13.190641 0.52435446
13.785998 -5.1182699 0.90339065
-5.0297146 12.253656 0.62802851
-5.1199083 12.681669 0.46183994
13.513504 -5.185461 0.89537132
13.281992 -5.240778 0.88856733
-4.8471794 11.45948 0.50559366
-4.9160237 11.761784 0.55227292
-4.98527 12.065218 0.59924817
12.980994 -5.3130407 0.87988377
-4.7284231 10.891155 0.59286344
-4.795661 11.219139 0.56041324
12.503163 -5.4312372 0.86660576
-4.7023029 10.466057 0.60397434
-4.8105092 10.466197 0.61796367
12.182381 -5.5073843 0.8577497
11.900795 -5.575798 0.85022533
-5.1465664 10.347764 0.56154776
-5.4385433 10.282676 0.59305799
-5.6637182 10.231359 0.61954927
10.917506 -5.821312 0.82554924
0.43811941 4.2352676 0.66355407
-6.0789728 10.093321 0.57489383
-6.2656355 10.051994 0.5989027
-6.5316114 9.9871311 0.53594875
9.9957657 -6.0374374 0.80354357
0.85024428 2.4353771 0.74929512
-6.8412828 9.917491 0.57415998
-7.0769758 9.8644457 0.60472727
0.64853382 2.3639259 0.83628798
-7.4237833 9.7864876 0.65118802
-7.643609 9.7389126 0.68148828
9.2957373 -6.2085018 0.7885288
9.1222067 -6.2525291 0.78509176
-8.0440388 9.6389618 0.50556648
8.7508459 -6.3434734 0.77781224
-8.2507105 9.5923462 0.5311687
-8.4849606 9.5384169 0.55897713
1.9827321 -0.78483295 0.84280682
-8.8227377 9.46346 0.59973741
-9.0565271 9.4129772 0.62850213
7.971983 -6.5325632 0.76357031
7.6961479 -6.5960693 0.75872052
1.7483926 -0.82652473 0.83451807
1.5662417 -0.89729118 0.83350301
-9.3149195 9.357502 0.65975487
7.3804159 -6.6685696 0.75344563
1.5777681 -1.1829686 0.87096608
-9.6343594 9.2876778 0.5618453
-9.890934 9.2282219 0.59049487
7.1280775 -6.7363377 0.74997532
6.9153299 -6.792572 0.7471894
-10.246943 9.1526337 0.63075376
-10.453424 9.1087484 0.65431094
6.5500116 -6.8826475 0.74228394
6.3152742 -6.9381485 0.73920071
-0.84299982 -0.034745693 0.8675518
-1.0284764 -0.079289436 0.87008882
-10.716535 8.6958961 0.68060148
-10.726596 8.9242859 0.68420327
5.8799992 -7.0451574 0.73419821
-8.8926039 6.8851948 0.58449721
-9.2760477 6.80229 0.51284111
-10.583222 8.1319704 0.6618278
-10.663332 8.4815969 0.6727674
-8.6153126 6.1710401 0.67578256
-9.2860174 6.7788382 0.51448238
-10.387886 7.3125772 0.64166939
-10.445709 7.568193 0.64669979
-10.526804 7.9019899 0.65504467
-9.1468878 6.0307956 0.51597118
-9.6499414 6.2250628 0.70412493
-9.7252455 6.520299 0.70707417
-10.273271 6.8587604 0.63383615
-10.33814 7.1383362 0.63768351
4.3389921 -7.4180498 0.72099245
-7.8223886 3.9779651 0.69013286
-7.9310274 4.3273573 0.6761632
-8.5580397 4.533597 0.51329124
-8.6579037 4.766098 0.63269401
-9.8020983 6.0408568 0.72955191
-10.073593 5.9960852 0.62982237
4.0882826 -7.4837656 0.71994591
-7.7466774 3.645113 0.71017182
-7.7716417 3.7416656 0.70445895
-8.6611061 4.5815296 0.76488721
-9.9206619 5.31499 0.63564444
-9.9934559 5.6644316 0.63113511
3.729223 -7.5669279 0.71805847
3.5154016 -7.617816 0.71723962
-7.6921511 2.9319172 0.65675342
-7.9551497 3.0463886 0.67606986
-9.0325375 4.2343483 0.58584523
-9.8043394 4.817903 0.64408863
-9.8677578 5.071908 0.63971961
3.3494341 -7.6557617 0.71660721
-7.7591562 2.3305783 0.7259109
-7.802351 2.5565605 0.70716262
-8.2901154 3.0009923 0.72015333
-8.5471544 2.9891262 0.75209272
-9.4653521 4.0610909 0.6460762
-9.6375599 4.0936022 0.66389203
-7.5767393 1.4429173 0.67162859
-7.6750107 1.7455959 0.78190827
-7.811162 2.0235472 0.76482213
-8.1537447 2.3788338 0.89664888
-8.7545948 2.9716771 0.91374612
-7.4537077 1.0140996 0.70697856
-7.5149298 1.2473936 0.68703246
-7.6769495 1.5149121 0.94305193
-7.1068192 -1.1378846 0.60044146
-7.315733 -0.96530867 0.59441626
-7.0314646 -1.7325115 0.65245211
-7.194211 -1.1300716 0.60373878
-7.6381245 -1.0867043 0.62109709
-7.9349031 -0.67161036 0.59949505
-7.1546059 -1.7306013 0.65757954
-7.7874632 -1.3155375 0.64896631
-8.5337439 -0.7832551 0.81676722
-8.5904665 -0.55296946 0.97184885
-8.3565626 -1.3470039 0.68071401
-1.1038823 -8.6792326 0.73649597
-1.2773287 -8.717207 0.73854196
-1.5324783 -8.7763147 0.74200797
-7.4705257 -3.3494921 0.82379091
-7.5452385 -3.0577478 0.79906571
-8.0330038 -2.9429379 0.80928373
-1.8503522 -8.8530216 0.74679935
-2.0706422 -8.904994 0.75025916
-2.4433625 -8.9910994 0.75634086
-2.665215 -9.0403156 0.76001763
-7.7017956 -4.4051037 0.9340452
-2.9921961 -9.1146469 0.76589715
-7.5554276 -5.0266514 0.9888854
-7.6321383 -4.7000761 0.95994854
-3.2967877 -9.1833553 0.77159131
-3.5031252 -9.2316122 0.77576911
-7.427949 -5.6065855 1.0413005
-7.5121412 -5.2296591 1.0071843
-3.8573589 -9.3125687 0.78308129
-4.0749602 -9.3592186 0.78754079
-7.3343287 -5.9996462 1.0770115
-7.3678646 -5.8536301 1.0636537
-4.4072866 -9.4387436 0.79523659
-4.6902695 -9.5064373 0.80198598
-4.9262972 -9.5586243 0.807531
-5.2113242 -9.6229038 0.81451261
-5.490283 -9.6843567 0.82145047
-6.7905807 -8.4501371 0.7526871
-6.869771 -8.1177578 0.7312696
-5.7806745 -9.7515736 0.82914543
-6.617774 -9.2221613 0.80293989
-6.6747494 -8.9521246 0.78526473
-6.0619073 -9.8170624 0.83679891
-6.2677288 -9.8572216 0.842026
-6.5552893 -9.4950409 0.82079828
14.534974 10.435276 1.068404
14.448524 10.638483 1.0612003
14.742938 9.8798037 1.086844
14.493392 10.186288 1.0649551
14.978265 9.1675615 1.1103375
15.541556 7.439774 1.1778495
15.484796 7.6583309 1.1696868
9.2107401 13.189177 1.1303186
15.734302 6.6033154 1.2089975
15.675601 6.8866501 1.1986569
15.610503 7.2210393 1.1872537
9.3287439 12.582329 1.1193259
9.244174 12.985669 1.1256847
15.762128 6.4652286 1.2141209
9.4565554 12.02986 1.1145791
9.3798103 12.362483 1.1170744
8.9236736 12.660486 1.0781426
9.6221094 11.254376 1.1111456
9.5612097 11.537138 1.1117245
9.5099602 11.772785 1.1125606
9.324439 10.382138 1.0577744
9.1785984 10.587053 1.0447947
9.0700512 10.925489 1.0397601
8.9247112 11.178059 1.0294379
9.1929388 10.419221 1.0430882
6.2457514 12.291802 1.1354371
6.0819273 12.368322 1.1191746
2.8684804 15.425413 1.068193
2.5539234 15.353948 1.035105
2.3038571 15.293179 1.009012
2.9434698 14.136257 0.92663765
1.9689019 15.211247 0.97504389
2.9519951 13.865011 0.89753544
2.8540766 14.0808 0.91241789
1.5065095 15.098302 0.93002343
14.669402 2.1301184 1.2532285
1.1652331 15.019301 0.89881933
0.91193104 14.963111 0.8770045
14.439374 2.0393105 1.237766
0.56685734 14.882441 0.84814453
0.33348083 14.829846 0.82969081
-2.7450414 17.932888 0.80885422
-2.9016435 17.940392 0.81075311
14.25003 1.8560266 1.2297754
-0.014840364 14.774641 0.95299423
-2.4872282 16.930506 0.70346785
-2.5632863 17.259663 0.7379787
-3.2134175 17.867577 0.8062197
-3.45296 17.811821 0.80344725
-0.25611675 14.707789 0.93275964
-0.50373304 14.657616 0.91561007
-2.3820593 16.376671 0.98494315
-2.4414887 16.673237 0.85122633
-3.7257004 17.750175 0.80142784
-0.82468641 14.591665 0.89492249
-1.0428798 14.537509 0.88028836
-2.1994994 15.535287 0.86733127
-2.2567694 15.789165 0.90277028
-2.4956238 16.182024 0.95830297
-4.0244446 17.684044 0.80015206
-4.2722111 17.631804 0.800246
-0.56500113 13.543934 1.1191317
-1.3446724 14.466511 0.86259234
-2.0686023 14.987297 0.7910744
-2.1423097 15.309051 0.83581209
-4.6255102 17.550282 0.80087078
-4.8638787 17.491764 0.80170298
1.2246456 11.541134 1.1168915
1.053853 11.712427 1.1257823
-0.82889807 13.458282 1.08854
-0.9735055 13.48671 1.0880044
-1.6006851 14.405406 0.84878945
-1.9203109 14.479681 0.85608566
-2.0165164 14.728382 0.89536381
-5.1334267 17.432522 0.80431104
-0.73417294 12.556445 1.12466
-4.1831894 16.064449 0.97473657
-5.4200211 17.367163 0.80754113
-5.662673 17.312763 0.8112464
11.437065 0.80744743 1.0502325
11.378889 1.0594201 1.0322975
-0.71003139 12.500265 1.1127702
-1.9222596 13.477127 1.0622727
-6.0229268 17.23336 0.81807566
-1.647032 12.589239 1.0916845
-1.7216115 12.663757 1.1084043
-6.022294 16.573971 0.75469577
-5.8377643 15.716706 1.0061424
-5.9188385 16.081078 0.8792448
-5.705204 15.165977 0.92797887
-5.7697544 15.434117 0.96602142
-5.5087652 14.236447 1.0867146
-5.56388 14.555059 0.84180677
-5.6333013 14.852273 0.88374221
-5.3950357 13.800296 0.87240493
-5.4351778 13.977319 0.90042603
-4.8339233 12.575157 1.0034941
-5.1887836 12.885592 0.84893835
-5.2608228 13.189968 0.90233421
-5.3415031 13.516953 0.96007144
-5.038394 12.425316 0.88034129
-5.0986891 12.60321 0.9149307
-4.8661766 11.479616 0.90155053
-4.9271331 11.746113 0.96158957
-4.9977651 12.052395 1.0310888
-4.7443099 10.897332 0.86100972
-4.8269358 11.30727 0.86171007
-4.8020325 10.518229 0.79280961
-5.1605854 10.363461 0.82080114
-5.4354563 10.304766 0.85806608
-5.6543679 10.251707 0.88958788
10.877347 -5.7669172 1.4526293
-6.0460691 10.129385 0.94570923
-6.2838659 10.065405 0.88854969
10.722501 -5.8016157 1.4456626
10.528642 -5.8478251 1.4373055
-6.5423861 10.0088 0.93227327
10.201408 -5.9306602 1.4238865
9.9331684 -5.9960899 1.4129707
0.82216048 2.4455748 0.9379493
-6.8383923 9.9460058 0.98404098
-7.0677462 9.8920956 1.0252899
9.6763811 -6.0575142 1.4027326
0.72860861 2.4089246 0.93347406
-7.370266 9.8223372 1.0809577
-7.6743135 9.7478571 0.91108179
9.3527403 -6.1387987 1.3904636
9.1215515 -6.1960049 1.3819246
-7.9542675 9.6850939 0.95895386
8.7435017 -6.2898178 1.3684669
8.5404825 -6.3373528 1.3612275
-7.579093 8.5933008 1.1283827
-8.2329807 9.6199017 1.0070835
-8.4585056 9.568634 1.0466865
8.2726479 -6.4035044 1.35232
1.9772904 -0.73812008 1.1419749
-8.821044 9.4825602 0.98086846
-9.0567675 9.4310303 1.0204769
7.9475346 -6.4852676 1.3419868
7.6738968 -6.5507059 1.3334041
1.7766533 -0.78542519 1.1343338
1.4991858 -0.67991972 1.0975827
1.2652588 -0.67269135 1.0803267
-8.4609556 8.3416443 1.1034709
-9.4349766 9.3377981 0.94771636
7.3627148 -6.6318512 1.3247018
7.110795 -6.6959591 1.3177983
-9.6298704 9.2922316 0.97907698
-9.8795652 9.2347002 1.0189368
6.8985157 -6.7521763 1.3124876
-8.1660662 6.9528623 1.2371757
-9.4146681 8.1278887 1.0421549
-10.147138 9.1500378 1.0604167
-10.517295 9.0886269 0.96790373
6.5603399 -6.8363705 1.3039428
6.3512125 -6.8847942 1.2986283
-7.6524906 6.1978645 1.1215366
-8.1814909 6.6721845 1.2462057
-8.1708126 6.8360686 1.2399929
-10.26479 8.4019575 1.2087494
-10.697058 8.6955442 0.98749709
-10.723748 8.9094238 0.99556792
5.9664974 -6.9783907 1.2898923
-9.018115 6.7009621 1.2182559
-9.6990976 7.3076015 1.0917851
-10.053452 7.5738344 1.1595792
-10.144334 7.8683834 1.1785291
-10.368876 8.139945 1.0738077
-10.642555 8.4667845 0.97585249
-7.8230867 5.0099192 1.2536368
-8.4223537 5.9769182 1.1060578
-9.0322571 6.389307 1.2296906
-9.0259113 6.5226831 1.2243077
-9.5646801 6.7431545 1.072758
-9.6460142 7.0821133 1.0832434
-10.371118 7.3023992 0.93050623
-10.434359 7.6016412 0.93898773
-10.508454 7.8944159 0.9504832
-9.3784389 5.8881817 1.062951
-9.4623251 6.2480106 1.0658331
-10.226904 6.7726645 0.91479516
-10.317556 7.0723453 0.92455089
4.3566265 -7.3750944 1.2622641
-10.025787 5.8925557 0.90704548
-10.057645 5.9888883 0.90866673
4.0743542 -7.4357176 1.2580774
-9.9262915 5.3327522 1.0552105
-9.9923868 5.6555586 1.0515862
3.7444293 -7.5234499 1.2553526
3.5199616 -7.5735264 1.2529408
-9.8022709 4.7830696 1.0653373
-9.8727303 5.0920506 1.0588213
3.1631014 -7.646059 1.249001
2.9142916 -7.7078934 1.2477621
-9.6132183 3.9639943 1.0925044
-9.6649218 4.1854696 1.0836909
-9.7605896 4.5047598 1.2164955
2.6739237 -7.7650671 1.246745
-7.881978 1.759675 1.2062491
-7.8617096 1.9895725 1.1699511
-8.9064217 3.0285475 1.2027227
-9.4967852 3.3633518 1.2689762
-9.5778589 3.7104011 1.2497113
2.3252246 -7.8495159 1.2459184
2.1019995 -7.9017239 1.2456207
-7.6864452 1.3270745 0.9683609
-7.8799381 1.4190011 1.1169063
-8.4138737 1.7715058 1.2834251
-8.4867458 2.0227194 1.2601373
-8.5736361 2.3035259 1.2363039
-9.3079824 2.5530248 1.3249956
-9.3524113 2.8831131 1.29498
-9.418232 3.124397 1.279812
1.7623446 -7.9753532 1.2451417
1.5047174 -8.03127 1.2451962
-8.2327509 1.0978389 1.3552568
1.2686534 -8.0846291 1.2458866
-8.9996271 1.3319602 1.1229594
0.93753433 -8.1642199 1.2478076
0.73330426 -8.2153072 1.2495681
-8.7877731 0.39482117 1.2132013
0.36040306 -8.3071337 1.2532692
0.10477948 -8.3659344 1.2558132
-8.6259766 -0.28198671 1.2847977
-8.6884785 -0.013056278 1.2555302
-0.13854814 -8.422905 1.2587831
-8.5079422 -0.87007236 1.1770035
-8.5718794 -0.52795601 1.3127444
-0.46105373 -8.4955044 1.2628419
-0.68234384 -8.5451803 1.2660177
-8.3436747 -1.6534643 1.0787184
-8.4108925 -1.306386 1.22333
-8.4597626 -1.0862398 1.200493
-1.0312418 -8.6291609 1.2721668
-1.2760562 -8.6848373 1.2765396
-8.2189808 -2.228857 1.1384128
-8.2940826 -1.8943787 1.1036583
-1.5895402 -8.7580423 1.2829043
-7.487958 -3.3327694 1.2295463
-7.7529535 -3.055707 1.2101519
-8.0811415 -2.8518057 1.205174
-8.1673145 -2.4644642 1.163416
-1.8725302 -8.8275995 1.2894237
-2.0681744 -8.8714676 1.2937948
-2.4403386 -8.957489 1.3029422
-2.6618531 -9.0072994 1.3085729
-7.723423 -4.3574219 1.3734256
-2.9882462 -9.0792303 1.3172772
-7.5686531 -5.0524912 1.4551122
-7.650877 -4.6858606 1.4118617
-3.2924712 -9.1499653 1.3262042
-3.4981465 -9.1938372 1.3321582
-7.538311 -5.1839256 1.4707029
-3.8517723 -9.274847 1.3434371
-4.0700221 -9.3302536 1.3512729
-7.2302303 -6.4535532 1.1188184
-7.2750463 -6.2630548 1.1012532
-4.408596 -9.4086628 1.3631632
-7.0893745 -7.0524139 1.1745051
-7.1753225 -6.6884823 1.14059
-4.6571517 -9.4686184 1.3724225
-4.9148779 -9.5254936 1.3818738
-6.9065762 -7.8323908 1.2480087
-6.9832821 -7.5203114 1.2185844
-7.0409031 -7.2631273 1.1942806
-5.2328405 -9.6005611 1.3943999
-5.4848108 -9.6607552 1.4047439
-6.7773209 -8.4054871 1.3027872
-6.8540163 -8.0665998 1.2703432
-5.783505 -9.7313385 1.4173369
-6.5780411 -9.2741013 1.3865807
-6.6391621 -9.0118523 1.3612063
-6.7179098 -8.6503305 1.3262194
-6.0566034 -9.7961349 1.4291507
-6.2750998 -9.8165398 1.4356743
-6.5266056 -9.4905567 1.4075797
12.032 11.114922 1.3879964
9.0287828 13.965761 1.1459256
8.954277 14.306521 1.1549565
9.1519318 13.426363 1.1342286
9.0792503 13.744729 1.140781
8.7808304 12.591983 1.4996862
8.835845 12.334805 1.4934809
8.280839 11.391964 1.3679155
7.2270327 12.303617 1.268129
3.8224876 15.613354 1.1702905
3.7086351 15.621256 1.1611508
8.4568262 10.601036 1.3620112
8.3941631 10.868431 1.3626894
8.3211956 11.205336 1.3655548
7.0294561 12.284683 1.2400724
3.3814032 15.54617 1.1244369
16.147436 2.9675083 1.3458464
16.119823 3.1225314 1.3379506
8.6052618 9.9795303 1.3652912
8.4758959 10.372447 1.3573062
6.4432297 12.2311 1.1576662
2.9908254 15.468122 1.2608252
16.110033 2.7068725 1.3522654
8.8193884 9.2168226 1.3819922
8.745986 9.5118046 1.3760473
8.6683807 9.8032646 1.3704268
6.3690805 11.786637 1.4702492
6.0591202 12.139961 1.4485011
5.8569088 12.113518 1.4134479
3.4501865 14.484686 1.3490434
2.5697291 15.390824 1.3884701
2.3256209 15.336168 1.3577834
16.136238 1.8502936 1.3879684
16.156603 2.1175079 1.3789605
8.9329262 8.6662102 1.3931516
8.8947287 8.8806725 1.3892092
5.3932161 11.872281 1.3173037
1.9874222 15.258244 1.3161246
1.7525818 15.201472 1.2875547
6.8729534 10.003407 1.4459606
6.6855011 10.210561 1.4221634
5.2789726 11.848156 1.296804
5.0779657 11.796467 1.2599936
2.6034243 14.267506 1.2257899
2.4911788 14.245354 1.2109638
1.4461749 15.132438 1.2523965
9.3800249 7.2585058 1.4664214
7.081521 9.1273308 1.451599
7.0723991 9.202343 1.4521235
1.4195759 14.512382 1.4637628
1.1692545 15.07264 1.2219871
0.9326973 15.019861 1.1968607
7.2739639 8.5284834 1.4745032
7.1239462 8.9048405 1.4537855
6.2812777 9.6134872 1.3201848
4.365943 11.340137 1.3965282
1.738174 13.915895 1.3855036
1.5624156 14.059498 1.3931086
1.4669054 14.284969 1.4253609
0.58327174 14.941214 1.3184208
0.33996797 14.88472 1.2922124
-2.7241516 17.827084 1.1888888
-2.9031165 17.940369 1.2062773
7.412056 8.0371637 1.4953609
7.3356771 8.322072 1.4832159
5.5646648 9.6658535 1.4942662
5.1667376 9.8609962 1.4219064
5.063158 10.021294 1.4116079
0.1792016 14.853905 1.2772486
-2.5202045 16.925444 1.420781
-2.5575399 17.07691 1.4474924
-2.6429265 17.555752 1.1505163
-3.2112134 17.87233 1.2006726
-3.4550886 17.820736 1.1974424
5.2634706 9.6923313 1.4311023
-0.54455876 14.687702 1.355669
-2.3971379 16.394285 1.3273101
-2.4658275 16.688133 1.378997
-3.7439389 17.757448 1.1946701
4.8893824 9.4145603 1.4699572
4.4255733 9.4234543 1.4941636
0.30411983 13.652803 1.4652091
-0.8620497 14.587177 1.3215259
-1.0536568 14.55609 1.307987
-2.2565863 15.768411 1.217502
-2.3482306 16.190845 1.2915639
-4.0518312 17.685875 1.1922225
-4.2901645 17.630672 1.1914749
4.2300406 9.4287157 1.4462283
4.0534077 9.6550064 1.4230114
-0.2014724 13.621968 1.1563942
-0.28309143 13.629728 1.2837689
-1.2108432 14.519627 1.2954943
-4.6351433 17.548431 1.1915748
-4.8652582 17.496647 1.1929605
7.0649023 6.0030909 1.4562886
6.9983177 6.3125458 1.433606
3.8843863 9.061964 1.3311173
-1.0177274 13.673227 1.1250349
-1.4356396 14.017006 1.1841133
-1.6314602 14.014629 1.1796724
-1.9230988 14.327334 1.3778352
-2.2073789 14.843758 1.3501663
-2.4756179 14.805019 1.3430755
-4.0203395 16.326733 1.348954
-5.1351204 17.438597 1.1961893
7.190958 5.7162752 1.4913722
7.1511765 5.7798958 1.4811631
-0.80066943 12.71976 1.1597838
-1.1938148 13.113059 1.2354647
-1.2881494 13.115865 1.2324798
-1.7503461 13.560942 1.3297356
-1.7909743 13.915259 1.2858291
-2.8088472 14.730354 1.3319575
-4.2157412 16.080326 1.3144683
-5.4475632 17.308632 1.1927042
-5.4935803 17.355522 1.2010233
-1.4701403 13.085583 1.2189933
-1.7175368 13.417727 1.2948871
-3.0437655 14.672619 1.3246127
-3.2976346 14.615405 1.3201684
-5.3933539 16.403315 1.4293736
-5.5572681 16.784096 1.1289324
-6.0438232 17.241417 1.2141727
-6.1809483 17.205093 1.217074
-3.6452603 14.534811 1.3162649
-3.8863404 14.483622 1.3168293
-5.2394276 15.7536 1.3128643
-5.3087468 16.052502 1.3663628
-6.0072966 16.438404 1.1085088
-6.0845947 16.785782 1.1575954
-4.2206182 14.407992 1.3197644
-4.4502144 14.357247 1.3236461
-5.1965318 15.109812 1.2046199
-5.1682715 15.455226 1.2593561
-5.8768969 15.734218 1.3531941
-5.9406042 16.016781 1.4031868
-6.0127649 16.322266 1.4575156
-3.3187475 13.073425 1.2326393
-4.6637096 14.304353 1.3279922
-5.3009996 15.068802 1.2049308
-5.8002043 15.43278 1.2992667
-4.8089685 13.828688 1.3797392
-4.9583254 13.895607 1.2699839
-5.3148351 14.149193 1.3501867
-5.5858369 14.543352 1.1413342
-5.6628551 14.85714 1.1970961
-4.6831903 13.102381 1.3397563
-5.3945208 14.108463 1.3495879
-4.8488035 12.924374 1.3164905
-5.2769413 13.175505 1.4199996
-5.0708618 12.31726 1.2068136
-5.154953 12.665378 1.2931498
-5.0206571 12.117554 1.1571699
11.88987 -5.5110359 1.4979752
11.715708 -5.5526428 1.4897318
-7.4882212 9.8038101 1.2165327
-7.660305 9.766696 1.25248
-7.9711208 9.6999245 1.3190118
-8.2377176 9.6384411 1.3767656
-8.5598116 9.5582466 1.3193803
-8.8276272 9.4993467 1.3772191
-9.0686064 9.4470997 1.4291104
-8.6458416 8.4961319 1.3957145
-9.2985706 9.397171 1.4775674
1.5618298 -1.2005768 1.49982
-9.6521969 9.3060799 1.411559
-9.8884077 9.2513409 1.4603363
-9.1880817 8.2018023 1.3938125
-10.342545 9.0814648 1.3968409
-10.426529 9.1121359 1.4153805
-8.278903 6.5020719 1.2767359
-10.294832 8.5038776 1.368004
-10.356719 8.7551489 1.3880669
-8.3840485 6.4770341 1.3055978
-8.6294365 6.424243 1.3728396
-10.075213 7.6054544 1.4547302
-10.15083 7.891881 1.4749303
-10.221159 8.1880665 1.4957917
-9.0080261 6.3396106 1.4768144
-9.2163258 6.2792974 1.2756658
-9.9409113 7.0300827 1.4256402
-10.020614 7.3788824 1.4418215
-9.4653072 6.2177091 1.4674662
-8.4203176 4.8674045 1.4202138
-9.5907393 5.616034 1.391313
-9.6807232 5.9741406 1.3943366
-6.2762508 2.0165915 1.4091291
-9.3982811 4.8000007 1.4025961
-9.4694042 5.0950212 1.3965809
-9.5372381 5.3868275 1.3923228
-10.031397 5.8537998 1.4798863
-9.266675 4.2142172 1.4256701
-9.3386955 4.5542336 1.4100858
-7.3111343 1.8098764 1.3802317
-8.7021141 3.0646932 1.4400365
-9.1448317 3.6798582 1.4558623
-9.2123013 3.9776771 1.4376404
-9.0325413 3.1789434 1.4922433
-9.0965223 2.5336285 1.4379909
-8.2199144 1.001977 1.3680514
-9.1777706 2.0725112 1.3624641
-9.2530327 2.3066716 1.3455635
-8.1397991 0.62885523 1.4151652
-8.3704205 -1.4392872 1.4216377
-8.2737236 -1.8911076 1.4788902
-7.5082817 -5.3199844 1.4869863
-2.6165695 17.330906 1.4923
-5.4696279 16.736038 1.488911
-6.0664978 16.544746 1.4971948
1.6970227 1.3075986 0.11154023
9.7220821 -6.1149611 0.16628462
9.4083176 -6.1870379 0.16744578
9.1571426 -6.2429738 0.16836864
9.0069094 -6.2770677 0.16896451
6.5177441 -6.8881488 0.18336111
6.1285982 -6.9734874 0.18574667
4.4673958 -7.3843455 0.19938946
4.2345304 -7.4390874 0.20142198
3.9686234 -7.504539 0.20393533
3.6760428 -7.5774751 0.20681703
3.3781049 -7.6028237 0.20793724
3.1043499 -7.6116357 0.20845723
3.0873911 -7.7039342 0.21210837
2.8485935 -7.7572398 0.21445268
2.555835 -7.8273997 0.21758151
2.2631767 -7.8919768 0.22060144
-3.0668788 -4.6916528 0.11504555
-3.1134872 -4.5120721 0.1081264
2.0067151 -7.9532723 0.22349817
1.7299407 -8.0166664 0.22661841
1.4826915 -8.078207 0.22965968
1.1791732 -8.1450081 0.23315912
-5.0399446 -4.5085616 0.12569159
-7.5445518 -3.078567 0.10039875
0.88978338 -8.2128029 0.23673987
0.64448047 -8.2689152 0.23981613
-4.9323416 -5.1100488 0.14875919
-7.4327192 -3.4615302 0.11369938
-7.5236292 -3.2069602 0.10509306
-7.7257385 -3.0743604 0.10287902
0.36545753 -8.3331413 0.24339485
0.089487314 -8.3944473 0.24695402
-2.4624963 -6.9374185 0.20174074
-2.6139822 -6.9348416 0.20268404
-4.9721556 -5.112433 0.14926451
-0.4324472 -8.5152454 0.25409418
-2.436615 -7.2014308 0.21226645
-2.8420906 -7.0873246 0.21050632
-7.6905546 -4.3433881 0.15173841
-0.73539853 -8.5896816 0.25854439
-1.0281581 -8.6568604 0.2627762
-3.6128273 -7.1520963 0.21912956
-3.6567307 -7.1438146 0.21915716
-7.6297798 -4.6943784 0.16463274
-7.6839304 -4.4722238 0.15668231
-1.5684381 -8.7811298 0.27082467
-1.8499522 -8.8214931 0.27414554
-3.8247647 -7.2829623 0.22620326
-6.8207712 -5.5326791 0.1871295
-7.4888248 -5.303515 0.18665344
-1.9993485 -8.8809566 0.27749354
-7.3663063 -5.8103757 0.20503384
-7.4290123 -5.5568042 0.19584185
-3.0699043 -9.0255146 0.29079962
-5.0958729 -7.5338655 0.24804294
-5.339839 -7.5752454 0.25215453
-3.0732603 -9.1305313 0.2950806
-4.7770615 -8.3976555 0.27981323
-4.8613434 -8.1403942 0.27022487
-5.2871532 -7.9355912 0.26613361
-4.6105027 -9.0199318 0.30341125
-4.7027769 -8.5744171 0.28625911
-6.4607773 -7.8268867 0.27431214
-4.320014 -9.3957157 0.31600267
-4.561461 -9.4588871 0.32071209
-6.4289937 -7.9925475 0.28058165
-6.8361969 -8.0188122 0.28628844
-7.0512733 -7.716598 0.27677059
-7.3395805 -7.7353044 0.28098202
-7.65592 -7.8831868 0.29075706
-7.8523045 -7.9616971 0.29632622
9.5806885 12.369366 0.11824805
9.5018702 12.636976 0.11455992
9.7057543 11.82259 0.12529016
9.6355019 12.086851 0.12135795
9.7448988 11.567476 0.12821227
9.6940279 11.223315 0.12811181
9.1604815 10.814512 0.10833526
2.7642477 14.539204 0.22430742
9.332078 10.300254 0.12007529
9.220952 10.528082 0.11320734
2.8488762 14.185957 0.21166778
2.782172 14.465068 0.22159463
2.9759076 13.649982 0.19381928
2.9114025 13.919355 0.20248622
0.96562767 14.987638 0.18263179
0.69421554 14.919939 0.17138928
3.0301378 13.419046 0.18664688
0.40702581 14.852705 0.16034645
0.14390588 14.791695 0.15075886
-0.13895321 14.72888 0.14127839
2.6200001 12.135977 0.11407834
-1.2258804 14.482361 0.11099422
-1.5162269 14.412251 0.10459682
-1.9276123 14.466631 0.10668823
-5.3937197 13.83993 0.1363464
-5.4640312 14.139833 0.15620381
-5.2705412 13.312864 0.10153911
-5.3305745 13.569063 0.11845466
-5.1952934 12.99692 0.19559282
-5.0139065 12.202622 0.13014776
-5.0763998 12.483673 0.15378731
-4.8916535 11.669607 0.17820674
-4.9388227 11.87359 0.10316777
-0.046871901 8.3094482 0.34228927
-0.7165246 8.7148962 0.16097802
-4.7691483 11.123372 0.12387139
-4.8270235 11.373375 0.14814705
-0.25049853 8.2438974 0.14537793
-0.628829 8.3622303 0.13440812
-0.70077121 8.6349277 0.153162
-4.7117729 10.840936 0.16734457
-4.664299 10.441298 0.20205146
-4.8721199 10.38434 0.21510118
-5.1524668 10.305876 0.16059136
-5.4327841 10.244375 0.1823777
-5.7046161 10.183722 0.20534199
-6.0195379 10.117985 0.15174544
-6.2608175 10.064692 0.17320013
-6.5415082 10.003415 0.1989705
-6.7826633 9.9485188 0.22108531
-7.0827398 9.8858099 0.15713727
-7.6277714 9.7427034 0.20669371
-7.8976784 9.6820984 0.23210073
-8.1784401 9.6156178 0.25912243
-8.4692574 9.5501347 0.28768522
-8.6679449 9.5050974 0.30636257
-9.0202608 9.4197798 0.22110403
-9.298008 9.359849 0.24543124
-9.5791683 9.2967253 0.27026117
-9.9424047 9.2157793 0.16785759
-10.124166 9.1750507 0.18267071
-10.404276 9.1127281 0.20374584
-10.729787 8.7661629 0.23088586
-10.762895 8.98137 0.23140109
-8.5175161 6.9932122 0.29947746
-10.602679 8.2183933 0.22721505
-10.671101 8.489336 0.22939271
-8.2388687 6.2533488 0.18860322
-8.837369 6.9055743 0.33612812
-10.461718 7.6717529 0.22530091
-10.541821 7.941709 0.22658783
-8.5951948 6.1752257 0.33132088
-9.3535633 6.7522893 0.27779722
-9.7866182 6.6825991 0.32039851
-10.350626 7.1216626 0.22767133
-10.410277 7.3861704 0.22653186
2.0885341 -0.79904222 0.41942018
1.9851778 -0.81954765 0.41810769
-9.1638126 6.0061388 0.28369707
-9.6415434 6.1188025 0.32425344
-9.7190542 6.3956218 0.32258964
-10.223209 6.698204 0.36100817
-10.292453 6.8848624 0.2287389
1.7107179 -0.88947964 0.41659272
-9.6532373 6.0923719 0.32625991
-10.079062 5.9549065 0.37084395
1.6217215 -1.2653384 0.44562525
-7.9074173 4.2218342 0.47377849
-8.0577679 4.3736901 0.36985022
-8.5526896 4.6522255 0.40505511
-8.6035185 4.8728647 0.39721477
-9.9596033 5.4468827 0.37940401
-10.002913 5.703639 0.37313867
-7.7635536 3.6959145 0.50229937
-7.8656292 3.9723716 0.38105351
-8.6644211 4.219986 0.32513779
-9.8394308 4.9100952 0.39239079
-9.8944197 5.1611972 0.3858155
-7.9461813 3.4601438 0.31533581
-8.0099993 3.5003986 0.31757742
-8.5689116 3.7908776 0.34377521
-8.7093458 3.909934 0.34801561
-9.1026831 4.1871519 0.3650403
-9.7918892 4.7162371 0.39757144
-7.7014694 2.9884624 0.56270325
-7.9025135 3.0811453 0.45578229
-8.3894806 3.2555752 0.36556917
-8.5826178 3.4465384 0.36778837
-7.9212265 2.5933638 0.37886709
-8.1804266 2.7099862 0.38935316
-8.5088902 3.0100243 0.39248496
-9.3802643 3.2783506 0.1753642
-9.4325533 3.4975479 0.16760755
-7.7512197 2.0212379 0.41334325
-8.0463219 2.1430602 0.42425096
-9.2922745 2.7141423 0.33828521
-9.3350697 2.8731852 0.33226639
-7.6063118 1.330924 0.46337461
-7.8182402 1.5896835 0.45470631
-9.1370411 2.1610713 0.22074586
-9.1813612 2.4354401 0.20814896
-7.4976931 0.99575186 0.48655522
-9.0055218 1.6800423 0.24121708
-9.0500174 1.8986602 0.23103642
-7.6361408 0.54586935 0.5362888
-8.8688564 1.0551643 0.2712605
-8.9217968 1.3017874 0.25914568
-7.2716122 -0.21176624 0.43947214
-7.533493 0.093565464 0.57245332
-7.709897 0.22881222 0.57013714
-8.7486868 0.51168823 0.298805
-8.8028994 0.76860094 0.28552431
-7.1706228 -0.92319727 0.65126836
-7.34587 -0.61472511 0.47408181
-7.552906 -0.38619089 0.61920571
-8.6277676 -0.028292656 0.32734329
-8.686758 0.23923492 0.31304592
-7.1677532 -1.1813655 0.34991652
-8.4251499 -0.65664196 0.35957539
-8.5670729 -0.31830311 0.34333825
-8.3792191 -1.1293178 0.38878006
-8.4180288 -0.84336138 0.37148213
-6.6280804 -2.6898561 0.44027197
-8.3175297 -1.3811641 0.40322036
-8.1135817 -2.2465949 0.45449132
-8.1849318 -1.9545169 0.43707591
-7.5699701 -3.051414 0.49296623
-7.9848461 -2.7806392 0.48700333
-8.0551023 -2.4849706 0.46890932
-7.4526653 -3.5058398 0.52159953
-7.5217915 -3.2603889 0.5062753
-7.8664274 -3.0059714 0.49893296
-7.6477852 -4.7384028 0.61491907
-7.7000732 -4.5104251 0.60009748
-7.5178709 -5.3232121 0.65338242
-7.5546684 -5.1443477 0.6414845
-7.3955154 -5.8526454 0.68847704
-7.4589891 -5.5777669 0.67020738
-7.2601109 -6.4211335 0.72644043
-7.3269768 -6.1478763 0.70818901
-7.1228409 -6.919064 0.75955808
-7.1837902 -6.738749 0.74779618
-6.999568 -7.5563216 0.80352116
-7.0741329 -7.2330604 0.7814554
-6.9783144 -7.6512647 0.81003571
14.366088 10.856526 0.33343554
14.063603 11.145418 0.3169049
14.412816 10.727596 0.33705276
14.546727 10.146359 0.3506617
9.5476017 12.366726 0.57797676
9.4889526 12.669506 0.57757306
9.6976728 11.868456 0.58395261
9.6232805 12.093609 0.58059692
9.722249 11.654652 0.58411783
9.6708736 11.270245 0.5779146
2.5602772 15.255161 0.42319459
2.3359287 15.303778 0.41552949
9.1513329 10.79453 0.53675377
9.0130453 11.096891 0.52765954
3.8936918 13.864649 0.24929309
3.872566 13.974802 0.25258952
